# .PCD v0.7 - Point Cloud Data file format
VERSION 0.7
FIELDS x y z
SIZE 4 4 4
TYPE F F F
COUNT 1 1 1
WIDTH 1438
HEIGHT 1
VIEWPOINT 0 0 0 1 0 0 0
POINTS 1438
DATA ascii
0.62838554 3.5325263 0.092999443
0.62838554 3.5651357 0.092999466
0.62838554 3.5979526 0.092999429
0.62838554 3.63098 0.092999451
0.62838554 3.6642215 0.092999339
0.62838554 3.6976805 0.092999309
0.62838554 3.73136 0.09299925
0.62838554 3.7652638 0.092999108
0.62838554 3.7993953 0.092999257
0.62838554 3.8337586 0.092998981
0.62838554 3.8683567 0.092998773
0.62838554 3.9031937 0.09299878
0.62838554 3.9382744 0.092999779
0.62838554 3.9736004 0.092999794
0.62838554 4.0091772 0.092999712
0.62838554 4.0450087 0.092999555
0.62838554 4.0810986 0.092999384
0.62838554 4.1174512 0.092999354
0.62838554 4.1540713 0.092999294
0.62838554 4.1909628 0.092999466
0.62838554 4.2281303 0.092999108
0.62838554 4.2655787 0.092998989
0.62838554 4.3033113 0.092999212
0.62838554 4.3413348 0.09299887
0.62838554 4.3796525 0.092998922
0.62838554 4.4182701 0.092998981
0.62838554 4.4571924 0.092998728
0.62838554 4.4964252 0.092999704
0.62838554 4.5359721 0.092999622
0.62838554 4.575839 0.092999466
0.62838554 4.6160321 0.092999585
0.62838554 4.6565561 0.092999376
0.62838554 4.6974173 0.092999369
0.62838554 4.7386212 0.092999473
0.62838554 4.7801738 0.092999354
0.62838554 4.8220816 0.092999123
0.62838554 4.8643498 0.092998967
0.62838554 4.9069858 0.09299884
0.62838554 4.949995 0.092998795
0.62838554 4.9933844 0.092998974
0.62838554 5.0371609 0.092998639
0.62838554 5.0813317 0.092998475
0.62838554 5.1259041 0.092999846
0.62838554 5.1708841 0.092999563
0.62838554 5.216279 0.092999525
0.62838554 5.2620974 0.092999563
0.62838554 5.3083463 0.092999592
0.62838554 5.3550344 0.092999361
0.62838554 5.4021688 0.092999384
0.62838554 5.4497585 0.092999324
0.62838554 5.4978118 0.092998989
0.62838554 5.5463367 0.092998952
0.62838554 5.5953431 0.092998974
0.62838554 5.6448393 0.092998646
0.62838554 5.6948352 0.092998639
0.62838554 5.7453399 0.092998542
0.62838554 5.7963643 0.092999771
0.60837555 -5.8479161 0.092999771
0.60837555 -5.7963638 0.092999078
0.60837555 -5.7453403 0.092999227
0.60837555 -5.6948357 0.092999324
0.60837555 -5.6448402 0.092999317
0.60837555 -5.5953436 0.092999637
0.60837555 -5.5463376 0.092999607
0.60837555 -5.4978123 0.092999645
0.60837555 -5.4497585 0.092999324
0.60837555 -5.4021688 0.092999384
0.60837555 -5.3550344 0.092999361
0.60837555 -5.3083463 0.092999592
0.60837555 -5.2620974 0.092999563
0.60837555 -5.216279 0.092999525
0.60837555 -5.1708841 0.092999563
0.60837555 -5.1259036 0.092999235
0.60837555 -5.0813322 0.092999086
0.60837555 -5.0371618 0.092999242
0.60837555 -4.9933848 0.09299957
0.60837555 -4.9499955 0.092999384
0.60837555 -4.9069862 0.092999429
0.60837555 -4.8643503 0.092999548
0.60837555 -4.822082 0.092999697
0.60837555 -4.7801738 0.092999354
0.60837555 -4.7386212 0.092999473
0.60837555 -4.6974173 0.092999369
0.60837555 -4.6565561 0.092999376
0.60837555 -4.6160321 0.092999585
0.60837555 -4.575839 0.092999466
0.60837555 -4.5359721 0.092999622
0.60837555 -4.4964247 0.092999168
0.60837555 -4.4571929 0.092999257
0.60837555 -4.4182706 0.092999503
0.60837555 -4.3796535 0.092999443
0.60837555 -4.3413353 0.092999384
0.60837555 -4.3033123 0.092999727
0.60837555 -4.2655792 0.092999503
0.60837555 -4.2281303 0.092999108
0.60837555 -4.1909628 0.092999466
0.60837555 -4.1540713 0.092999294
0.60837555 -4.1174512 0.092999354
0.60837555 -4.0810986 0.092999384
0.60837555 -4.0450087 0.092999555
0.60837555 -4.0091772 0.092999712
0.60837555 -3.9736004 0.092999794
0.60837555 -3.9382737 0.092999309
0.60837555 -3.9031942 0.092999242
0.60837555 -3.8683574 0.092999235
0.60837555 -3.8337591 0.092999443
0.60837555 -3.799396 0.092999712
0.60837555 -3.7652645 0.092999555
0.60837555 -3.7313607 0.092999697
0.60837555 -3.6976805 0.092999309
0.60837555 -3.6642215 0.092999339
0.60837555 -3.63098 0.092999451
0.60837555 -3.5979526 0.092999429
0.60837555 -3.5651357 0.092999466
0.60837555 -3.5325263 0.092999443
0.60837555 -3.5001209 0.092999667
0.60837555 -3.4679163 0.092999302
0.60837555 -3.4359102 0.092999183
0.60837555 -3.404099 0.092999339
0.60837555 -3.3724797 0.092999481
0.60837555 -3.3410497 0.092999361
0.60837555 -3.3098059 0.092999548
0.60837555 -3.2787454 0.092999481
0.60837555 -3.2478645 0.092999443
0.60837555 -3.2171626 0.092999324
0.60837555 -3.1866355 0.092999473
0.60837555 -3.1562812 0.092999488
0.60837555 -3.1260967 0.092999384
0.60837555 -3.0960796 0.09299963
0.60837555 -3.0662272 0.09299951
0.60837555 -3.0365372 0.092999578
0.60837555 -3.0070066 0.092999227
0.60837555 -2.977634 0.092999384
0.60837555 -2.9484165 0.092999518
0.60837555 -2.9193518 0.092999496
0.60837555 -2.8904376 0.092999615
0.60837555 -2.8616719 0.092999399
0.60837555 -2.8330519 0.09299963
0.60837555 -2.8045754 0.09299913
0.60837555 -2.7762408 0.092999421
0.60837555 -2.7480459 0.092999391
0.60837555 -2.7199886 0.092999533
0.60837555 -2.6920667 0.092999533
0.60837555 -2.664278 0.092999525
0.60837555 -2.6366208 0.092999682
0.60837555 -2.6090922 0.092999458
0.60837555 -2.581692 0.092999279
0.60837555 -2.5544169 0.092999496
0.60837555 -2.5272658 0.092999548
0.60837555 -2.5002363 0.092999294
0.60837555 -2.4733267 0.092999488
0.60837555 -2.4465351 0.092999637
0.60837555 -2.4198599 0.092999689
0.60837555 -2.3932986 0.092999324
0.60837555 -2.3668509 0.09299954
0.60837555 -2.3405142 0.09299922
0.60837555 -2.3142869 0.09299925
0.60837555 -2.288167 0.092999712
0.60837555 -2.2621536 0.092999391
0.60837555 -2.2362444 0.092999689
0.60837555 -2.2104378 0.092999175
0.60837555 -2.1847327 0.092999406
0.60837555 -2.1591272 0.092999414
0.60837555 -2.13362 0.092999391
0.60837555 -2.1082094 0.092999555
0.60837555 -2.0828938 0.092999697
0.60837555 -2.057672 0.092999637
0.60837555 -2.0325415 0.092999414
0.60837555 -2.0075026 0.092999354
0.60837555 -1.9825526 0.09299954
0.60837555 -1.9576906 0.092999406
0.60837555 -1.9329151 0.092999317
0.60837555 -1.9082243 0.092999637
0.60837555 -1.8836174 0.092999414
0.60837555 -1.8590927 0.09299951
0.60837555 -1.8346484 0.092999235
0.60837555 -1.8102849 0.092999682
0.60837555 -1.7859989 0.092999771
0.60837555 -1.7617891 0.092999317
0.60837555 -1.737656 0.092999212
0.60837555 -1.7135975 0.092999093
0.60837555 -1.689612 0.092999488
0.60837555 -1.6656985 0.092999592
0.60837555 -1.641856 0.092999503
0.60837555 -1.6180828 0.092999347
0.60837555 -1.594378 0.092999272
0.60837555 -1.5707402 0.092999414
0.60837555 -1.5471684 0.092999503
0.60837555 -1.5236614 0.092999719
0.60837555 -1.500218 0.092999339
0.60837555 -1.476837 0.092999496
0.60837555 -1.4535174 0.092999503
0.60837555 -1.430258 0.0929996
0.60837555 -1.4070565 0.092999242
0.60837555 -1.3839141 0.092999376
0.60837555 -1.3608286 0.092999488
0.60837555 -1.337799 0.092999414
0.60837555 -1.3148241 0.092999458
0.60837555 -1.2919028 0.092999481
0.60837555 -1.2690341 0.092999354
0.60837555 -1.246217 0.092999436
0.60837555 -1.2234504 0.092999615
0.60837555 -1.2007333 0.092999339
0.60837555 -1.1780646 0.092999458
0.60837555 -1.1554434 0.092999451
0.60837555 -1.1328685 0.092999719
0.60837555 -1.1103392 0.092999756
0.60837555 -1.0878544 0.09299954
0.60837555 -1.0654118 0.09299925
0.60837555 -1.0430127 0.092999406
0.60837555 -1.0206553 0.092999279
0.60837555 -0.9983384 0.092999354
0.60837555 -0.97606111 0.092999183
0.60837555 -0.95382243 0.092999279
0.60837555 -0.93162143 0.09299922
0.60837555 -0.90945715 0.09299954
0.60837555 -0.88732874 0.092999361
0.60837555 -0.86523515 0.092999712
0.60837555 -0.84317559 0.092999734
0.60837555 -0.82114911 0.09299954
0.60837555 -0.79915476 0.092999704
0.60837555 -0.77719164 0.092999414
0.60837555 -0.75525767 0.092999563
0.60837555 -0.73335433 0.09299925
0.60837555 -0.71147954 0.092999376
0.60837555 -0.68963242 0.092999175
0.60837555 -0.66781205 0.092999279
0.60837555 -0.64601755 0.092999414
0.60837555 -0.62424815 0.092999294
0.60837555 -0.60250282 0.092999592
0.60837555 -0.5807808 0.092999578
0.60837555 -0.55908126 0.092999481
0.60837555 -0.53740323 0.092999533
0.60837555 -0.51574594 0.092999488
0.60837555 -0.4941085 0.092999622
0.60837555 -0.47249004 0.092999704
0.60837555 -0.4508898 0.09299954
0.60837555 -0.42930567 0.092999302
0.60837555 -0.40773916 0.092999496
0.60837555 -0.3861883 0.092999361
0.60837555 -0.36465225 0.092999212
0.60837555 -0.34313014 0.092999361
0.60837555 -0.32162115 0.092999659
0.60837555 -0.30012447 0.092999496
0.60837555 -0.27863929 0.092999212
0.60837555 -0.25716472 0.092999652
0.60837555 -0.23569998 0.092999265
0.60837555 -0.21424423 0.092999369
0.60837555 -0.19279666 0.092999414
0.60837555 -0.17135644 0.092999302
0.60837555 -0.14992274 0.092999436
0.60837555 -0.12849361 0.092999242
0.60837555 -0.10707053 0.092999205
0.60837555 -0.085651532 0.092999242
0.60837555 -0.064235792 0.092999317
0.60837555 -0.042822503 0.092999384
0.60837555 -0.021410843 0.092999436
0.60837555 0 0.092999458
0.60837555 0.021410843 0.092999436
0.60837555 0.042822503 0.092999384
0.60837555 0.064235792 0.092999317
0.60837555 0.085651532 0.092999242
0.60837555 0.10707053 0.092999205
0.60837555 0.12849361 0.092999242
0.60837555 0.14992158 0.092999399
0.60837555 0.17135528 0.092999257
0.60837555 0.19279666 0.092999414
0.60837555 0.21424423 0.092999369
0.60837555 0.23569998 0.092999265
0.60837555 0.25716472 0.092999652
0.60837555 0.27863929 0.092999212
0.60837555 0.30012447 0.092999496
0.60837555 0.32162115 0.092999659
0.60837555 0.34313014 0.092999361
0.60837555 0.36465225 0.092999212
0.60837555 0.3861883 0.092999361
0.60837555 0.40773916 0.092999496
0.60837555 0.42930567 0.092999302
0.60837555 0.45088863 0.092999429
0.60837555 0.47248888 0.092999592
0.60837555 0.49410734 0.092999503
0.60837555 0.51574594 0.092999488
0.60837555 0.53740323 0.092999533
0.60837555 0.55908126 0.092999481
0.60837555 0.5807808 0.092999578
0.60837555 0.60250282 0.092999592
0.60837555 0.62424815 0.092999294
0.60837555 0.64601755 0.092999414
0.60837555 0.66781205 0.092999279
0.60837555 0.68963242 0.092999175
0.60837555 0.71147954 0.092999376
0.60837555 0.73335433 0.09299925
0.60837555 0.75525767 0.092999563
0.60837555 0.77719051 0.092999227
0.60837555 0.79915357 0.09299951
0.60837555 0.82114911 0.09299954
0.60837555 0.84317559 0.092999734
0.60837555 0.86523515 0.092999712
0.60837555 0.88732874 0.092999361
0.60837555 0.90945715 0.09299954
0.60837555 0.93162143 0.09299922
0.60837555 0.95382243 0.092999279
0.60837555 0.97606111 0.092999183
0.60837555 0.9983384 0.092999354
0.60837555 1.0206553 0.092999279
0.60837555 1.0430127 0.092999406
0.60837555 1.0654118 0.09299925
0.60837555 1.0878532 0.092999279
0.60837555 1.1103381 0.092999496
0.60837555 1.1328675 0.092999451
0.60837555 1.1554434 0.092999451
0.60837555 1.1780646 0.092999458
0.60837555 1.2007333 0.092999339
0.60837555 1.2234504 0.092999615
0.60837555 1.246217 0.092999436
0.60837555 1.2690341 0.092999354
0.60837555 1.2919028 0.092999481
0.60837555 1.3148241 0.092999458
0.60837555 1.337799 0.092999414
0.60837555 1.3608286 0.092999488
0.60837555 1.3839141 0.092999376
0.60837555 1.4070565 0.092999242
0.60837555 1.4302568 0.092999257
0.60837555 1.4535162 0.092999153
0.60837555 1.4768358 0.092999145
0.60837555 1.500218 0.092999339
0.60837555 1.5236614 0.092999719
0.60837555 1.5471684 0.092999503
0.60837555 1.5707402 0.092999414
0.60837555 1.594378 0.092999272
0.60837555 1.6180828 0.092999347
0.60837555 1.641856 0.092999503
0.60837555 1.6656985 0.092999592
0.60837555 1.689612 0.092999488
0.60837555 1.7135975 0.092999093
0.60837555 1.737656 0.092999212
0.60837555 1.7617891 0.092999317
0.60837555 1.7859979 0.092999347
0.60837555 1.8102837 0.09299925
0.60837555 1.834649 0.092999451
0.60837555 1.8590927 0.09299951
0.60837555 1.8836174 0.092999414
0.60837555 1.9082243 0.092999637
0.60837555 1.9329151 0.092999317
0.60837555 1.9576906 0.092999406
0.60837555 1.9825526 0.09299954
0.60837555 2.0075026 0.092999354
0.60837555 2.0325415 0.092999414
0.60837555 2.0576713 0.092999391
0.60837555 2.0828934 0.092999451
0.60837555 2.1082089 0.092999302
0.60837555 2.1336195 0.092999138
0.60837555 2.1591268 0.09299916
0.60837555 2.184732 0.092999145
0.60837555 2.2104383 0.092999443
0.60837555 2.2362444 0.092999689
0.60837555 2.2621536 0.092999391
0.60837555 2.288167 0.092999712
0.60837555 2.3142869 0.09299925
0.60837555 2.3405142 0.09299922
0.60837555 2.3668509 0.09299954
0.60837555 2.3932986 0.092999324
0.60837555 2.4198592 0.092999399
0.60837555 2.4465344 0.092999347
0.60837555 2.473326 0.092999198
0.60837555 2.5002358 0.092998996
0.60837555 2.5272651 0.092999242
0.60837555 2.5544164 0.09299919
0.60837555 2.5816925 0.092999585
0.60837555 2.609093 0.092999764
0.60837555 2.6366208 0.092999682
0.60837555 2.664278 0.092999525
0.60837555 2.6920667 0.092999533
0.60837555 2.7199886 0.092999533
0.60837555 2.7480459 0.092999391
0.60837555 2.7762408 0.092999421
0.60837555 2.8045754 0.09299913
0.60837555 2.8330512 0.092999287
0.60837555 2.8616712 0.092999056
0.60837555 2.8904369 0.092999272
0.60837555 2.9193511 0.092999145
0.60837555 2.9484158 0.092999168
0.60837555 2.9776332 0.092999026
0.60837555 3.0070071 0.092999585
0.60837555 3.0365372 0.092999578
0.60837555 3.0662272 0.09299951
0.60837555 3.0960796 0.09299963
0.60837555 3.1260967 0.092999384
0.60837555 3.1562812 0.092999488
0.60837555 3.1866355 0.092999473
0.60837555 3.2171626 0.092999324
0.60837555 3.2478645 0.092999443
0.60837555 3.2787447 0.092999093
0.60837555 3.3098052 0.092999153
0.60837555 3.3410492 0.092998959
0.60837555 3.3724792 0.092999078
0.60837555 3.4040985 0.092998937
0.60837555 3.4359097 0.092998773
0.60837555 3.4679167 0.092999712
0.60837555 3.5001209 0.092999667
0.60837555 3.5325263 0.092999443
0.60837555 3.5651357 0.092999466
0.60837555 3.5979526 0.092999429
0.60837555 3.63098 0.092999451
0.60837555 3.6642215 0.092999339
0.60837555 3.6976805 0.092999309
0.60837555 3.73136 0.09299925
0.60837555 3.7652638 0.092999108
0.60837555 3.7993953 0.092999257
0.60837555 3.8337586 0.092998981
0.60837555 3.8683567 0.092998773
0.60837555 3.9031937 0.09299878
0.60837555 3.9382744 0.092999779
0.60837555 3.9736004 0.092999794
0.60837555 4.0091772 0.092999712
0.60837555 4.0450087 0.092999555
0.60837555 4.0810986 0.092999384
0.60837555 4.1174512 0.092999354
0.60837555 4.1540713 0.092999294
0.60837555 4.1909628 0.092999466
0.60837555 4.2281303 0.092999108
0.60837555 4.2655787 0.092998989
0.60837555 4.3033113 0.092999212
0.60837555 4.3413348 0.09299887
0.60837555 4.3796525 0.092998922
0.60837555 4.4182701 0.092998981
0.60837555 4.4571924 0.092998728
0.60837555 4.4964252 0.092999704
0.60837555 4.5359721 0.092999622
0.60837555 4.575839 0.092999466
0.60837555 4.6160321 0.092999585
0.60837555 4.6565561 0.092999376
0.60837555 4.6974173 0.092999369
0.60837555 4.7386212 0.092999473
0.60837555 4.7801738 0.092999354
0.60837555 4.8220816 0.092999123
0.60837555 4.8643498 0.092998967
0.60837555 4.9069858 0.09299884
0.60837555 4.949995 0.092998795
0.60837555 4.9933844 0.092998974
0.60837555 5.0371609 0.092998639
0.60837555 5.0813317 0.092998475
0.60837555 5.1259041 0.092999846
0.60837555 5.1708841 0.092999563
0.60837555 5.216279 0.092999525
0.60837555 5.2620974 0.092999563
0.60837555 5.3083463 0.092999592
0.60837555 5.3550344 0.092999361
0.60837555 5.4021688 0.092999384
0.60837555 5.4497585 0.092999324
0.60837555 5.4978118 0.092998989
0.60837555 5.5463367 0.092998952
0.60837555 5.5953431 0.092998974
0.60837555 5.6448393 0.092998646
0.60837555 5.6948352 0.092998639
0.60837555 5.7453399 0.092998542
0.60837555 5.7963643 0.092999771
0.58836555 -5.8479161 0.092999771
0.58836555 -5.7963638 0.092999078
0.58836555 -5.7453403 0.092999227
0.58836555 -5.6948357 0.092999324
0.58836555 -5.6448402 0.092999317
0.58836555 -5.5953436 0.092999637
0.58836555 -5.5463376 0.092999607
0.58836555 -5.4978123 0.092999645
0.58836555 -5.4497585 0.092999324
0.58836555 -5.4021688 0.092999384
0.58836555 -5.3550344 0.092999361
0.58836555 -5.3083463 0.092999592
0.58836555 -5.2620974 0.092999563
0.58836555 -5.216279 0.092999525
0.58836555 -5.1708841 0.092999563
0.58836555 -5.1259036 0.092999235
0.58836555 -5.0813322 0.092999086
0.58836555 -5.0371618 0.092999242
0.58836555 -4.9933848 0.09299957
0.58836555 -4.9499955 0.092999384
0.58836555 -4.9069862 0.092999429
0.58836555 -4.8643503 0.092999548
0.58836555 -4.822082 0.092999697
0.58836555 -4.7801738 0.092999354
0.58836555 -4.7386212 0.092999473
0.58836555 -4.6974173 0.092999369
0.58836555 -4.6565561 0.092999376
0.58836555 -4.6160321 0.092999585
0.58836555 -4.575839 0.092999466
0.58836555 -4.5359721 0.092999622
0.58836555 -4.4964247 0.092999168
0.58836555 -4.4571929 0.092999257
0.58836555 -4.4182706 0.092999503
0.58836555 -4.3796535 0.092999443
0.58836555 -4.3413353 0.092999384
0.58836555 -4.3033123 0.092999727
0.58836555 -4.2655792 0.092999503
0.58836555 -4.2281303 0.092999108
0.58836555 -4.1909628 0.092999466
0.58836555 -4.1540713 0.092999294
0.58836555 -4.1174512 0.092999354
0.58836555 -4.0810986 0.092999384
0.58836555 -4.0450087 0.092999555
0.58836555 -4.0091772 0.092999712
0.58836555 -3.9736004 0.092999794
0.58836555 -3.9382737 0.092999309
0.58836555 -3.9031942 0.092999242
0.58836555 -3.8683574 0.092999235
0.58836555 -3.8337591 0.092999443
0.58836555 -3.799396 0.092999712
0.58836555 -3.7652645 0.092999555
0.58836555 -3.7313607 0.092999697
0.58836555 -3.6976805 0.092999309
0.58836555 -3.6642215 0.092999339
0.58836555 -3.63098 0.092999451
0.58836555 -3.5979526 0.092999429
0.58836555 -3.5651357 0.092999466
0.58836555 -3.5325263 0.092999443
0.58836555 -3.5001209 0.092999667
0.58836555 -3.4679163 0.092999302
0.58836555 -3.4359102 0.092999183
0.58836555 -3.404099 0.092999339
0.58836555 -3.3724797 0.092999481
0.58836555 -3.3410497 0.092999361
0.58836555 -3.3098059 0.092999548
0.58836555 -3.2787454 0.092999481
0.58836555 -3.2478645 0.092999443
0.58836555 -3.2171626 0.092999324
0.58836555 -3.1866355 0.092999473
0.58836555 -3.1562812 0.092999488
0.58836555 -3.1260967 0.092999384
0.58836555 -3.0960796 0.09299963
0.58836555 -3.0662272 0.09299951
0.58836555 -3.0365372 0.092999578
0.58836555 -3.0070066 0.092999227
0.58836555 -2.977634 0.092999384
0.58836555 -2.9484165 0.092999518
0.58836555 -2.9193518 0.092999496
0.58836555 -2.8904376 0.092999615
0.58836555 -2.8616719 0.092999399
0.58836555 -2.8330519 0.09299963
0.58836555 -2.8045754 0.09299913
0.58836555 -2.7762408 0.092999421
0.58836555 -2.7480459 0.092999391
0.58836555 -2.7199886 0.092999533
0.58836555 -2.6920667 0.092999533
0.58836555 -2.664278 0.092999525
0.58836555 -2.6366208 0.092999682
0.58836555 -2.6090922 0.092999458
0.58836555 -2.581692 0.092999279
0.58836555 -2.5544169 0.092999496
0.58836555 -2.5272658 0.092999548
0.58836555 -2.5002363 0.092999294
0.58836555 -2.4733267 0.092999488
0.58836555 -2.4465351 0.092999637
0.58836555 -2.4198599 0.092999689
0.58836555 -2.3932986 0.092999324
0.58836555 -2.3668509 0.09299954
0.58836555 -2.3405142 0.09299922
0.58836555 -2.3142869 0.09299925
0.58836555 -2.288167 0.092999712
0.58836555 -2.2621536 0.092999391
0.58836555 -2.2362444 0.092999689
0.58836555 -2.2104378 0.092999175
0.58836555 -2.1847327 0.092999406
0.58836555 -2.1591272 0.092999414
0.58836555 -2.13362 0.092999391
0.58836555 -2.1082094 0.092999555
0.58836555 -2.0828938 0.092999697
0.58836555 -2.057672 0.092999637
0.58836555 -2.0325415 0.092999414
0.58836555 -2.0075026 0.092999354
0.58836555 -1.9825526 0.09299954
0.58836555 -1.9576906 0.092999406
0.58836555 -1.9329151 0.092999317
0.58836555 -1.9082243 0.092999637
0.58836555 -1.8836174 0.092999414
0.58836555 -1.8590927 0.09299951
0.58836555 -1.8346484 0.092999235
0.58836555 -1.8102849 0.092999682
0.58836555 -1.7859989 0.092999771
0.58836555 -1.7617891 0.092999317
0.58836555 -1.737656 0.092999212
0.58836555 -1.7135975 0.092999093
0.58836555 -1.689612 0.092999488
0.58836555 -1.6656985 0.092999592
0.58836555 -1.641856 0.092999503
0.58836555 -1.6180828 0.092999347
0.58836555 -1.594378 0.092999272
0.58836555 -1.5707402 0.092999414
0.58836555 -1.5471684 0.092999503
0.58836555 -1.5236614 0.092999719
0.58836555 -1.500218 0.092999339
0.58836555 -1.476837 0.092999496
0.58836555 -1.4535174 0.092999503
0.58836555 -1.430258 0.0929996
0.58836555 -1.4070565 0.092999242
0.58836555 -1.3839141 0.092999376
0.58836555 -1.3608286 0.092999488
0.58836555 -1.337799 0.092999414
0.58836555 -1.3148241 0.092999458
0.58836555 -1.2919028 0.092999481
0.58836555 -1.2690341 0.092999354
0.58836555 -1.246217 0.092999436
0.58836555 -1.2234504 0.092999615
0.58836555 -1.2007333 0.092999339
0.58836555 -1.1780646 0.092999458
0.58836555 -1.1554434 0.092999451
0.58836555 -1.1328685 0.092999719
0.58836555 -1.1103392 0.092999756
0.58836555 -1.0878544 0.09299954
0.58836555 -1.0654118 0.09299925
0.58836555 -1.0430127 0.092999406
0.58836555 -1.0206553 0.092999279
0.58836555 -0.9983384 0.092999354
0.58836555 -0.97606111 0.092999183
0.58836555 -0.95382243 0.092999279
0.58836555 -0.93162143 0.09299922
0.58836555 -0.90945715 0.09299954
0.58836555 -0.88732874 0.092999361
0.58836555 -0.86523515 0.092999712
0.58836555 -0.84317559 0.092999734
0.58836555 -0.82114911 0.09299954
0.58836555 -0.79915476 0.092999704
0.58836555 -0.77719164 0.092999414
0.58836555 -0.75525767 0.092999563
0.58836555 -0.73335433 0.09299925
0.58836555 -0.71147954 0.092999376
0.58836555 -0.68963242 0.092999175
0.58836555 -0.66781205 0.092999279
0.58836555 -0.64601755 0.092999414
0.58836555 -0.62424815 0.092999294
0.58836555 -0.60250282 0.092999592
0.58836555 -0.5807808 0.092999578
0.58836555 -0.55908126 0.092999481
0.58836555 -0.53740323 0.092999533
0.58836555 -0.51574594 0.092999488
0.58836555 -0.4941085 0.092999622
0.58836555 -0.47249004 0.092999704
0.58836555 -0.4508898 0.09299954
0.58836555 -0.42930567 0.092999302
0.58836555 -0.40773916 0.092999496
0.58836555 -0.3861883 0.092999361
0.58836555 -0.36465225 0.092999212
0.58836555 -0.34313014 0.092999361
0.58836555 -0.32162115 0.092999659
0.58836555 -0.30012447 0.092999496
0.58836555 -0.27863929 0.092999212
0.58836555 -0.25716472 0.092999652
0.58836555 -0.23569998 0.092999265
0.58836555 -0.21424423 0.092999369
0.58836555 -0.19279666 0.092999414
0.58836555 -0.17135644 0.092999302
0.58836555 -0.14992274 0.092999436
0.58836555 -0.12849361 0.092999242
0.58836555 -0.10707053 0.092999205
0.58836555 -0.085651532 0.092999242
0.58836555 -0.064235792 0.092999317
0.58836555 -0.042822503 0.092999384
0.58836555 -0.021410843 0.092999436
0.58836555 0 0.092999458
0.58836555 0.021410843 0.092999436
0.58836555 0.042822503 0.092999384
0.58836555 0.064235792 0.092999317
0.58836555 0.085651532 0.092999242
0.58836555 0.10707053 0.092999205
0.58836555 0.12849361 0.092999242
0.58836555 0.14992158 0.092999399
0.58836555 0.17135528 0.092999257
0.58836555 0.19279666 0.092999414
0.58836555 0.21424423 0.092999369
0.58836555 0.23569998 0.092999265
0.58836555 0.25716472 0.092999652
0.58836555 0.27863929 0.092999212
0.58836555 0.30012447 0.092999496
0.58836555 0.32162115 0.092999659
0.58836555 0.34313014 0.092999361
0.58836555 0.36465225 0.092999212
0.58836555 0.3861883 0.092999361
0.58836555 0.40773916 0.092999496
0.58836555 0.42930567 0.092999302
0.58836555 0.45088863 0.092999429
0.58836555 0.47248888 0.092999592
0.58836555 0.49410734 0.092999503
0.58836555 0.51574594 0.092999488
0.58836555 0.53740323 0.092999533
0.58836555 0.55908126 0.092999481
0.58836555 0.5807808 0.092999578
0.58836555 0.60250282 0.092999592
0.58836555 0.62424815 0.092999294
0.58836555 0.64601755 0.092999414
0.58836555 0.66781205 0.092999279
0.58836555 0.68963242 0.092999175
0.58836555 0.71147954 0.092999376
0.58836555 0.73335433 0.09299925
0.58836555 0.75525767 0.092999563
0.58836555 0.77719051 0.092999227
0.58836555 0.79915357 0.09299951
0.58836555 0.82114911 0.09299954
0.58836555 0.84317559 0.092999734
0.58836555 0.86523515 0.092999712
0.58836555 0.88732874 0.092999361
0.58836555 0.90945715 0.09299954
0.58836555 0.93162143 0.09299922
0.58836555 0.95382243 0.092999279
0.58836555 0.97606111 0.092999183
0.58836555 0.9983384 0.092999354
0.58836555 1.0206553 0.092999279
0.58836555 1.0430127 0.092999406
0.58836555 1.0654118 0.09299925
0.58836555 1.0878532 0.092999279
0.58836555 1.1103381 0.092999496
0.58836555 1.1328675 0.092999451
0.58836555 1.1554434 0.092999451
0.58836555 1.1780646 0.092999458
0.58836555 1.2007333 0.092999339
0.58836555 1.2234504 0.092999615
0.58836555 1.246217 0.092999436
0.58836555 1.2690341 0.092999354
0.58836555 1.2919028 0.092999481
0.58836555 1.3148241 0.092999458
0.58836555 1.337799 0.092999414
0.58836555 1.3608286 0.092999488
0.58836555 1.3839141 0.092999376
0.58836555 1.4070565 0.092999242
0.58836555 1.4302568 0.092999257
0.58836555 1.4535162 0.092999153
0.58836555 1.4768358 0.092999145
0.58836555 1.500218 0.092999339
0.58836555 1.5236614 0.092999719
0.58836555 1.5471684 0.092999503
0.58836555 1.5707402 0.092999414
0.58836555 1.594378 0.092999272
0.58836555 1.6180828 0.092999347
0.58836555 1.641856 0.092999503
0.58836555 1.6656985 0.092999592
0.58836555 1.689612 0.092999488
0.58836555 1.7135975 0.092999093
0.58836555 1.737656 0.092999212
0.58836555 1.7617891 0.092999317
0.58836555 1.7859979 0.092999347
0.58836555 1.8102837 0.09299925
0.58836555 1.834649 0.092999451
0.58836555 1.8590927 0.09299951
0.58836555 1.8836174 0.092999414
0.58836555 1.9082243 0.092999637
0.58836555 1.9329151 0.092999317
0.58836555 1.9576906 0.092999406
0.58836555 1.9825526 0.09299954
0.58836555 2.0075026 0.092999354
0.58836555 2.0325415 0.092999414
0.58836555 2.0576713 0.092999391
0.58836555 2.0828934 0.092999451
0.58836555 2.1082089 0.092999302
0.58836555 2.1336195 0.092999138
0.58836555 2.1591268 0.09299916
0.58836555 2.184732 0.092999145
0.58836555 2.2104383 0.092999443
0.58836555 2.2362444 0.092999689
0.58836555 2.2621536 0.092999391
0.58836555 2.288167 0.092999712
0.58836555 2.3142869 0.09299925
0.58836555 2.3405142 0.09299922
0.58836555 2.3668509 0.09299954
0.58836555 2.3932986 0.092999324
0.58836555 2.4198592 0.092999399
0.58836555 2.4465344 0.092999347
0.58836555 2.473326 0.092999198
0.58836555 2.5002358 0.092998996
0.58836555 2.5272651 0.092999242
0.58836555 2.5544164 0.09299919
0.58836555 2.5816925 0.092999585
0.58836555 2.609093 0.092999764
0.58836555 2.6366208 0.092999682
0.58836555 2.664278 0.092999525
0.58836555 2.6920667 0.092999533
0.58836555 2.7199886 0.092999533
0.58836555 2.7480459 0.092999391
0.58836555 2.7762408 0.092999421
0.58836555 2.8045754 0.09299913
0.58836555 2.8330512 0.092999287
0.58836555 2.8616712 0.092999056
0.58836555 2.8904369 0.092999272
0.58836555 2.9193511 0.092999145
0.58836555 2.9484158 0.092999168
0.58836555 2.9776332 0.092999026
0.58836555 3.0070071 0.092999585
0.58836555 3.0365372 0.092999578
0.58836555 3.0662272 0.09299951
0.58836555 3.0960796 0.09299963
0.58836555 3.1260967 0.092999384
0.58836555 3.1562812 0.092999488
0.58836555 3.1866355 0.092999473
0.58836555 3.2171626 0.092999324
0.58836555 3.2478645 0.092999443
0.58836555 3.2787447 0.092999093
0.58836555 3.3098052 0.092999153
0.58836555 3.3410492 0.092998959
0.58836555 3.3724792 0.092999078
0.58836555 3.4040985 0.092998937
0.58836555 3.4359097 0.092998773
0.58836555 3.4679167 0.092999712
0.58836555 3.5001209 0.092999667
0.58836555 3.5325263 0.092999443
0.58836555 3.5651357 0.092999466
0.58836555 3.5979526 0.092999429
0.58836555 3.63098 0.092999451
0.58836555 3.6642215 0.092999339
0.58836555 3.6976805 0.092999309
0.58836555 3.73136 0.09299925
0.58836555 3.7652638 0.092999108
0.58836555 3.7993953 0.092999257
0.58836555 3.8337586 0.092998981
0.58836555 3.8683567 0.092998773
0.58836555 3.9031937 0.09299878
0.58836555 3.9382744 0.092999779
0.58836555 3.9736004 0.092999794
0.58836555 4.0091772 0.092999712
0.58836555 4.0450087 0.092999555
0.58836555 4.0810986 0.092999384
0.58836555 4.1174512 0.092999354
0.58836555 4.1540713 0.092999294
0.58836555 4.1909628 0.092999466
0.58836555 4.2281303 0.092999108
0.58836555 4.2655787 0.092998989
0.58836555 4.3033113 0.092999212
0.58836555 4.3413348 0.09299887
0.58836555 4.3796525 0.092998922
0.58836555 4.4182701 0.092998981
0.58836555 4.4571924 0.092998728
0.58836555 4.4964252 0.092999704
0.58836555 4.5359721 0.092999622
0.58836555 4.575839 0.092999466
0.58836555 4.6160321 0.092999585
0.58836555 4.6565561 0.092999376
0.58836555 4.6974173 0.092999369
0.58836555 4.7386212 0.092999473
0.58836555 4.7801738 0.092999354
0.58836555 4.8220816 0.092999123
0.58836555 4.8643498 0.092998967
0.58836555 4.9069858 0.09299884
0.58836555 4.949995 0.092998795
0.58836555 4.9933844 0.092998974
0.58836555 5.0371609 0.092998639
0.58836555 5.0813317 0.092998475
0.58836555 5.1259041 0.092999846
0.58836555 5.1708841 0.092999563
0.58836555 5.216279 0.092999525
0.58836555 5.2620974 0.092999563
0.58836555 5.3083463 0.092999592
0.58836555 5.3550344 0.092999361
0.58836555 5.4021688 0.092999384
0.58836555 5.4497585 0.092999324
0.58836555 5.4978118 0.092998989
0.58836555 5.5463367 0.092998952
0.58836555 5.5953431 0.092998974
0.58836555 5.6448393 0.092998646
0.58836555 5.6948352 0.092998639
0.58836555 5.7453399 0.092998542
0.58836555 5.7963643 0.092999771
0.5683555 -5.8479161 0.092999771
0.5683555 -5.7963638 0.092999078
0.5683555 -5.7453403 0.092999227
0.5683555 -5.6948357 0.092999324
0.5683555 -5.6448402 0.092999317
0.5683555 -5.5953436 0.092999637
0.5683555 -5.5463376 0.092999607
0.5683555 -5.4978123 0.092999645
0.5683555 -5.4497585 0.092999324
0.5683555 -5.4021688 0.092999384
0.5683555 -5.3550344 0.092999361
0.5683555 -5.3083463 0.092999592
0.5683555 -5.2620974 0.092999563
0.5683555 -5.216279 0.092999525
0.5683555 -5.1708841 0.092999563
0.5683555 -5.1259036 0.092999235
0.5683555 -5.0813322 0.092999086
0.5683555 -5.0371618 0.092999242
0.5683555 -4.9933848 0.09299957
0.5683555 -4.9499955 0.092999384
0.5683555 -4.9069862 0.092999429
0.5683555 -4.8643503 0.092999548
0.5683555 -4.822082 0.092999697
0.5683555 -4.7801738 0.092999354
0.5683555 -4.7386212 0.092999473
0.5683555 -4.6974173 0.092999369
0.5683555 -4.6565561 0.092999376
0.5683555 -4.6160321 0.092999585
0.5683555 -4.575839 0.092999466
0.5683555 -4.5359721 0.092999622
0.5683555 -4.4964247 0.092999168
0.5683555 -4.4571929 0.092999257
0.5683555 -4.4182706 0.092999503
0.5683555 -4.3796535 0.092999443
0.5683555 -4.3413353 0.092999384
0.5683555 -4.3033123 0.092999727
0.5683555 -4.2655792 0.092999503
0.5683555 -4.2281303 0.092999108
0.5683555 -4.1909628 0.092999466
0.5683555 -4.1540713 0.092999294
0.5683555 -4.1174512 0.092999354
0.5683555 -4.0810986 0.092999384
0.5683555 -4.0450087 0.092999555
0.5683555 -4.0091772 0.092999712
0.5683555 -3.9736004 0.092999794
0.5683555 -3.9382737 0.092999309
0.5683555 -3.9031942 0.092999242
0.5683555 -3.8683574 0.092999235
0.5683555 -3.8337591 0.092999443
0.5683555 -3.799396 0.092999712
0.5683555 -3.7652645 0.092999555
0.5683555 -3.7313607 0.092999697
0.5683555 -3.6976805 0.092999309
0.5683555 -3.6642215 0.092999339
0.5683555 -3.63098 0.092999451
0.5683555 -3.5979526 0.092999429
0.5683555 -3.5651357 0.092999466
0.5683555 -3.5325263 0.092999443
0.5683555 -3.5001209 0.092999667
0.5683555 -3.4679163 0.092999302
0.5683555 -3.4359102 0.092999183
0.5683555 -3.404099 0.092999339
0.5683555 -3.3724797 0.092999481
0.5683555 -3.3410497 0.092999361
0.5683555 -3.3098059 0.092999548
0.5683555 -3.2787454 0.092999481
0.5683555 -3.2478645 0.092999443
0.5683555 -3.2171626 0.092999324
0.5683555 -3.1866355 0.092999473
0.5683555 -3.1562812 0.092999488
0.5683555 -3.1260967 0.092999384
0.5683555 -3.0960796 0.09299963
0.5683555 -3.0662272 0.09299951
0.5683555 -3.0365372 0.092999578
0.5683555 -3.0070066 0.092999227
0.5683555 -2.977634 0.092999384
0.5683555 -2.9484165 0.092999518
0.5683555 -2.9193518 0.092999496
0.5683555 -2.8904376 0.092999615
0.5683555 -2.8616719 0.092999399
0.5683555 -2.8330519 0.09299963
0.5683555 -2.8045754 0.09299913
0.5683555 -2.7762408 0.092999421
0.5683555 -2.7480459 0.092999391
0.5683555 -2.7199886 0.092999533
0.5683555 -2.6920667 0.092999533
0.5683555 -2.664278 0.092999525
0.5683555 -2.6366208 0.092999682
0.5683555 -2.6090922 0.092999458
0.5683555 -2.581692 0.092999279
0.5683555 -2.5544169 0.092999496
0.5683555 -2.5272658 0.092999548
0.5683555 -2.5002363 0.092999294
0.5683555 -2.4733267 0.092999488
0.5683555 -2.4465351 0.092999637
0.5683555 -2.4198599 0.092999689
0.5683555 -2.3932986 0.092999324
0.5683555 -2.3668509 0.09299954
0.5683555 -2.3405142 0.09299922
0.5683555 -2.3142869 0.09299925
0.5683555 -2.288167 0.092999712
0.5683555 -2.2621536 0.092999391
0.5683555 -2.2362444 0.092999689
0.5683555 -2.2104378 0.092999175
0.5683555 -2.1847327 0.092999406
0.5683555 -2.1591272 0.092999414
0.5683555 -2.13362 0.092999391
0.5683555 -2.1082094 0.092999555
0.5683555 -2.0828938 0.092999697
0.5683555 -2.057672 0.092999637
0.5683555 -2.0325415 0.092999414
0.5683555 -2.0075026 0.092999354
0.5683555 -1.9825526 0.09299954
0.5683555 -1.9576906 0.092999406
0.5683555 -1.9329151 0.092999317
0.5683555 -1.9082243 0.092999637
0.5683555 -1.8836174 0.092999414
0.5683555 -1.8590927 0.09299951
0.5683555 -1.8346484 0.092999235
0.5683555 -1.8102849 0.092999682
0.5683555 -1.7859989 0.092999771
0.5683555 -1.7617891 0.092999317
0.5683555 -1.737656 0.092999212
0.5683555 -1.7135975 0.092999093
0.5683555 -1.689612 0.092999488
0.5683555 -1.6656985 0.092999592
0.5683555 -1.641856 0.092999503
0.5683555 -1.6180828 0.092999347
0.5683555 -1.594378 0.092999272
0.5683555 -1.5707402 0.092999414
0.5683555 -1.5471684 0.092999503
0.5683555 -1.5236614 0.092999719
0.5683555 -1.500218 0.092999339
0.5683555 -1.476837 0.092999496
0.5683555 -1.4535174 0.092999503
0.5683555 -1.430258 0.0929996
0.5683555 -1.4070565 0.092999242
0.5683555 -1.3839141 0.092999376
0.5683555 -1.3608286 0.092999488
0.5683555 -1.337799 0.092999414
0.5683555 -1.3148241 0.092999458
0.5683555 -1.2919028 0.092999481
0.5683555 -1.2690341 0.092999354
0.5683555 -1.246217 0.092999436
0.5683555 -1.2234504 0.092999615
0.5683555 -1.2007333 0.092999339
0.5683555 -1.1780646 0.092999458
0.5683555 -1.1554434 0.092999451
0.5683555 -1.1328685 0.092999719
0.5683555 -1.1103392 0.092999756
0.5683555 -1.0878544 0.09299954
0.5683555 -1.0654118 0.09299925
0.5683555 -1.0430127 0.092999406
0.5683555 -1.0206553 0.092999279
0.5683555 -0.9983384 0.092999354
0.5683555 -0.97606111 0.092999183
0.5683555 -0.95382243 0.092999279
0.5683555 -0.93162143 0.09299922
0.5683555 -0.90945715 0.09299954
0.5683555 -0.88732874 0.092999361
0.5683555 -0.86523515 0.092999712
0.5683555 -0.84317559 0.092999734
0.5683555 -0.82114911 0.09299954
0.5683555 -0.79915476 0.092999704
0.5683555 -0.77719164 0.092999414
0.5683555 -0.75525767 0.092999563
0.5683555 -0.73335433 0.09299925
0.5683555 -0.71147954 0.092999376
0.5683555 -0.68963242 0.092999175
0.5683555 -0.66781205 0.092999279
0.5683555 -0.64601755 0.092999414
0.5683555 -0.62424815 0.092999294
0.5683555 -0.60250282 0.092999592
0.5683555 -0.5807808 0.092999578
0.5683555 -0.55908126 0.092999481
0.5683555 -0.53740323 0.092999533
0.5683555 -0.51574594 0.092999488
0.5683555 -0.4941085 0.092999622
0.5683555 -0.47249004 0.092999704
0.5683555 -0.4508898 0.09299954
0.5683555 -0.42930567 0.092999302
0.5683555 -0.40773916 0.092999496
0.5683555 -0.3861883 0.092999361
0.5683555 -0.36465225 0.092999212
0.5683555 -0.34313014 0.092999361
0.5683555 -0.32162115 0.092999659
0.5683555 -0.30012447 0.092999496
0.5683555 -0.27863929 0.092999212
0.5683555 -0.25716472 0.092999652
0.5683555 -0.23569998 0.092999265
0.5683555 -0.21424423 0.092999369
0.5683555 -0.19279666 0.092999414
0.5683555 -0.17135644 0.092999302
0.5683555 -0.14992274 0.092999436
0.5683555 -0.12849361 0.092999242
0.5683555 -0.10707053 0.092999205
0.5683555 -0.085651532 0.092999242
0.5683555 -0.064235792 0.092999317
0.5683555 -0.042822503 0.092999384
0.5683555 -0.021410843 0.092999436
0.5683555 0 0.092999458
0.5683555 0.021410843 0.092999436
0.5683555 0.042822503 0.092999384
0.5683555 0.064235792 0.092999317
0.5683555 0.085651532 0.092999242
0.5683555 0.10707053 0.092999205
0.5683555 0.12849361 0.092999242
0.5683555 0.14992158 0.092999399
0.5683555 0.17135528 0.092999257
0.5683555 0.19279666 0.092999414
0.5683555 0.21424423 0.092999369
0.5683555 0.23569998 0.092999265
0.5683555 0.25716472 0.092999652
0.5683555 0.27863929 0.092999212
0.5683555 0.30012447 0.092999496
0.5683555 0.32162115 0.092999659
0.5683555 0.34313014 0.092999361
0.5683555 0.36465225 0.092999212
0.5683555 0.3861883 0.092999361
0.5683555 0.40773916 0.092999496
0.5683555 0.42930567 0.092999302
0.5683555 0.45088863 0.092999429
0.5683555 0.47248888 0.092999592
0.5683555 0.49410734 0.092999503
0.5683555 0.51574594 0.092999488
0.5683555 0.53740323 0.092999533
0.5683555 0.55908126 0.092999481
0.5683555 0.5807808 0.092999578
0.5683555 0.60250282 0.092999592
0.5683555 0.62424815 0.092999294
0.5683555 0.64601755 0.092999414
0.5683555 0.66781205 0.092999279
0.5683555 0.68963242 0.092999175
0.5683555 0.71147954 0.092999376
0.5683555 0.73335433 0.09299925
0.5683555 0.75525767 0.092999563
0.5683555 0.77719051 0.092999227
0.5683555 0.79915357 0.09299951
0.5683555 0.82114911 0.09299954
0.5683555 0.84317559 0.092999734
0.5683555 0.86523515 0.092999712
0.5683555 0.88732874 0.092999361
0.5683555 0.90945715 0.09299954
0.5683555 0.93162143 0.09299922
0.5683555 0.95382243 0.092999279
0.5683555 0.97606111 0.092999183
0.5683555 0.9983384 0.092999354
0.5683555 1.0206553 0.092999279
0.5683555 1.0430127 0.092999406
0.5683555 1.0654118 0.09299925
0.5683555 1.0878532 0.092999279
0.5683555 1.1103381 0.092999496
0.5683555 1.1328675 0.092999451
0.5683555 1.1554434 0.092999451
0.5683555 1.1780646 0.092999458
0.5683555 1.2007333 0.092999339
0.5683555 1.2234504 0.092999615
0.5683555 1.246217 0.092999436
0.5683555 1.2690341 0.092999354
0.5683555 1.2919028 0.092999481
0.5683555 1.3148241 0.092999458
0.5683555 1.337799 0.092999414
0.5683555 1.3608286 0.092999488
0.5683555 1.3839141 0.092999376
0.5683555 1.4070565 0.092999242
0.5683555 1.4302568 0.092999257
0.5683555 1.4535162 0.092999153
0.5683555 1.4768358 0.092999145
0.5683555 1.500218 0.092999339
0.5683555 1.5236614 0.092999719
0.5683555 1.5471684 0.092999503
0.5683555 1.5707402 0.092999414
0.5683555 1.594378 0.092999272
0.5683555 1.6180828 0.092999347
0.5683555 1.641856 0.092999503
0.5683555 1.6656985 0.092999592
0.5683555 1.689612 0.092999488
0.5683555 1.7135975 0.092999093
0.5683555 1.737656 0.092999212
0.5683555 1.7617891 0.092999317
0.5683555 1.7859979 0.092999347
0.5683555 1.8102837 0.09299925
0.5683555 1.834649 0.092999451
0.5683555 1.8590927 0.09299951
0.5683555 1.8836174 0.092999414
0.5683555 1.9082243 0.092999637
0.5683555 1.9329151 0.092999317
0.5683555 1.9576906 0.092999406
0.5683555 1.9825526 0.09299954
0.5683555 2.0075026 0.092999354
0.5683555 2.0325415 0.092999414
0.5683555 2.0576713 0.092999391
0.5683555 2.0828934 0.092999451
0.5683555 2.1082089 0.092999302
0.5683555 2.1336195 0.092999138
0.5683555 2.1591268 0.09299916
0.5683555 2.184732 0.092999145
0.5683555 2.2104383 0.092999443
0.5683555 2.2362444 0.092999689
0.5683555 2.2621536 0.092999391
0.5683555 2.288167 0.092999712
0.5683555 2.3142869 0.09299925
0.5683555 2.3405142 0.09299922
0.5683555 2.3668509 0.09299954
0.5683555 2.3932986 0.092999324
0.5683555 2.4198592 0.092999399
0.5683555 2.4465344 0.092999347
0.5683555 2.473326 0.092999198
0.5683555 2.5002358 0.092998996
0.5683555 2.5272651 0.092999242
0.5683555 2.5544164 0.09299919
0.5683555 2.5816925 0.092999585
0.5683555 2.609093 0.092999764
0.5683555 2.6366208 0.092999682
0.5683555 2.664278 0.092999525
0.5683555 2.6920667 0.092999533
0.5683555 2.7199886 0.092999533
0.5683555 2.7480459 0.092999391
0.5683555 2.7762408 0.092999421
0.5683555 2.8045754 0.09299913
0.5683555 2.8330512 0.092999287
0.5683555 2.8616712 0.092999056
0.5683555 2.8904369 0.092999272
0.5683555 2.9193511 0.092999145
0.5683555 2.9484158 0.092999168
0.5683555 2.9776332 0.092999026
0.5683555 3.0070071 0.092999585
0.5683555 3.0365372 0.092999578
0.5683555 3.0662272 0.09299951
0.5683555 3.0960796 0.09299963
0.5683555 3.1260967 0.092999384
0.5683555 3.1562812 0.092999488
0.5683555 3.1866355 0.092999473
0.5683555 3.2171626 0.092999324
0.5683555 3.2478645 0.092999443
0.5683555 3.2787447 0.092999093
0.5683555 3.3098052 0.092999153
0.5683555 3.3410492 0.092998959
0.5683555 3.3724792 0.092999078
0.5683555 3.4040985 0.092998937
0.5683555 3.4359097 0.092998773
0.5683555 3.4679167 0.092999712
0.5683555 3.5001209 0.092999667
0.5683555 3.5325263 0.092999443
0.5683555 3.5651357 0.092999466
0.5683555 3.5979526 0.092999429
0.5683555 3.63098 0.092999451
0.5683555 3.6642215 0.092999339
0.5683555 3.6976805 0.092999309
0.5683555 3.73136 0.09299925
0.5683555 3.7652638 0.092999108
0.5683555 3.7993953 0.092999257
0.5683555 3.8337586 0.092998981
0.5683555 3.8683567 0.092998773
0.5683555 3.9031937 0.09299878
0.5683555 3.9382744 0.092999779
0.5683555 3.9736004 0.092999794
0.5683555 4.0091772 0.092999712
0.5683555 4.0450087 0.092999555
0.5683555 4.0810986 0.092999384
0.5683555 4.1174512 0.092999354
0.5683555 4.1540713 0.092999294
0.5683555 4.1909628 0.092999466
0.5683555 4.2281303 0.092999108
0.5683555 4.2655787 0.092998989
0.5683555 4.3033113 0.092999212
0.5683555 4.3413348 0.09299887
0.5683555 4.3796525 0.092998922
0.5683555 4.4182701 0.092998981
0.5683555 4.4571924 0.092998728
0.5683555 4.4964252 0.092999704
0.5683555 4.5359721 0.092999622
0.5683555 4.575839 0.092999466
0.5683555 4.6160321 0.092999585
0.5683555 4.6565561 0.092999376
0.5683555 4.6974173 0.092999369
0.5683555 4.7386212 0.092999473
0.5683555 4.7801738 0.092999354
0.5683555 4.8220816 0.092999123
0.5683555 4.8643498 0.092998967
0.5683555 4.9069858 0.09299884
0.5683555 4.949995 0.092998795
0.5683555 4.9933844 0.092998974
0.5683555 5.0371609 0.092998639
0.5683555 5.0813317 0.092998475
0.5683555 5.1259041 0.092999846
0.5683555 5.1708841 0.092999563
0.5683555 5.216279 0.092999525
0.5683555 5.2620974 0.092999563
0.5683555 5.3083463 0.092999592
0.5683555 5.3550344 0.092999361
0.5683555 5.4021688 0.092999384
0.5683555 5.4497585 0.092999324
0.5683555 5.4978118 0.092998989
0.5683555 5.5463367 0.092998952
0.5683555 5.5953431 0.092998974
0.5683555 5.6448393 0.092998646
0.5683555 5.6948352 0.092998639
0.5683555 5.7453399 0.092998542
0.5683555 5.7963643 0.092999771
0.54834551 -5.8479161 0.092999771
0.54834551 -5.7963638 0.092999078
0.54834551 -5.7453403 0.092999227
0.54834551 -5.6948357 0.092999324
0.54834551 -5.6448402 0.092999317
0.54834551 -5.5953436 0.092999637
0.54834551 -5.5463376 0.092999607
0.54834551 -5.4978123 0.092999645
0.54834551 -5.4497585 0.092999324
0.54834551 -5.4021688 0.092999384
0.54834551 -5.3550344 0.092999361
0.54834551 -5.3083463 0.092999592
0.54834551 -5.2620974 0.092999563
0.54834551 -5.216279 0.092999525
0.54834551 -5.1708841 0.092999563
0.54834551 -5.1259036 0.092999235
0.54834551 -5.0813322 0.092999086
0.54834551 -5.0371618 0.092999242
0.54834551 -4.9933848 0.09299957
0.54834551 -4.9499955 0.092999384
0.54834551 -4.9069862 0.092999429
0.54834551 -4.8643503 0.092999548
0.54834551 -4.822082 0.092999697
0.54834551 -4.7801738 0.092999354
0.54834551 -4.7386212 0.092999473
0.54834551 -4.6974173 0.092999369
0.54834551 -4.6565561 0.092999376
0.54834551 -4.6160321 0.092999585
0.54834551 -4.575839 0.092999466
0.54834551 -4.5359721 0.092999622
0.54834551 -4.4964247 0.092999168
0.54834551 -4.4571929 0.092999257
0.54834551 -4.4182706 0.092999503
0.54834551 -4.3796535 0.092999443
0.54834551 -4.3413353 0.092999384
0.54834551 -4.3033123 0.092999727
0.54834551 -4.2655792 0.092999503
0.54834551 -4.2281303 0.092999108
0.54834551 -4.1909628 0.092999466
0.54834551 -4.1540713 0.092999294
0.54834551 -4.1174512 0.092999354
0.54834551 -4.0810986 0.092999384
0.54834551 -4.0450087 0.092999555
0.54834551 -4.0091772 0.092999712
0.54834551 -3.9736004 0.092999794
0.54834551 -3.9382737 0.092999309
0.54834551 -3.9031942 0.092999242
0.54834551 -3.8683574 0.092999235
0.54834551 -3.8337591 0.092999443
0.54834551 -3.799396 0.092999712
0.54834551 -3.7652645 0.092999555
0.54834551 -3.7313607 0.092999697
0.54834551 -3.6976805 0.092999309
0.54834551 -3.6642215 0.092999339
0.54834551 -3.63098 0.092999451
0.54834551 -3.5979526 0.092999429
0.54834551 -3.5651357 0.092999466
0.54834551 -3.5325263 0.092999443
0.54834551 -3.5001209 0.092999667
0.54834551 -3.4679163 0.092999302
0.54834551 -3.4359102 0.092999183
0.54834551 -3.404099 0.092999339
0.54834551 -3.3724797 0.092999481
0.54834551 -3.3410497 0.092999361
0.54834551 -3.3098059 0.092999548
0.54834551 -3.2787454 0.092999481
0.54834551 -3.2478645 0.092999443
0.54834551 -3.2171626 0.092999324
0.54834551 -3.1866355 0.092999473
0.54834551 -3.1562812 0.092999488
0.54834551 -3.1260967 0.092999384
0.54834551 -3.0960796 0.09299963
0.54834551 -3.0662272 0.09299951
0.54834551 -3.0365372 0.092999578
0.54834551 -3.0070066 0.092999227
0.54834551 -2.977634 0.092999384
0.54834551 -2.9484165 0.092999518
0.54834551 -2.9193518 0.092999496
0.54834551 -2.8904376 0.092999615
0.54834551 -2.8616719 0.092999399
0.54834551 -2.8330519 0.09299963
0.54834551 -2.8045754 0.09299913
0.54834551 -2.7762408 0.092999421
0.54834551 -2.7480459 0.092999391
0.54834551 -2.7199886 0.092999533
0.54834551 -2.6920667 0.092999533
0.54834551 -2.664278 0.092999525
0.54834551 -2.6366208 0.092999682
0.54834551 -2.6090922 0.092999458
0.54834551 -2.581692 0.092999279
0.54834551 -2.5544169 0.092999496
0.54834551 -2.5272658 0.092999548
0.54834551 -2.5002363 0.092999294
0.54834551 -2.4733267 0.092999488
0.54834551 -2.4465351 0.092999637
0.54834551 -2.4198599 0.092999689
0.54834551 -2.3932986 0.092999324
0.54834551 -2.3668509 0.09299954
0.54834551 -2.3405142 0.09299922
0.54834551 -2.3142869 0.09299925
0.54834551 -2.288167 0.092999712
0.54834551 -2.2621536 0.092999391
0.54834551 -2.2362444 0.092999689
0.54834551 -2.2104378 0.092999175
0.54834551 -2.1847327 0.092999406
0.54834551 -2.1591272 0.092999414
0.54834551 -2.13362 0.092999391
0.54834551 -2.1082094 0.092999555
0.54834551 -2.0828938 0.092999697
0.54834551 -2.057672 0.092999637
0.54834551 -2.0325415 0.092999414
0.54834551 -2.0075026 0.092999354
0.54834551 -1.9825526 0.09299954
0.54834551 -1.9576906 0.092999406
0.54834551 -1.9329151 0.092999317
0.54834551 -1.9082243 0.092999637
0.54834551 -1.8836174 0.092999414
0.54834551 -1.8590927 0.09299951
0.54834551 -1.8346484 0.092999235
0.54834551 -1.8102849 0.092999682
0.54834551 -1.7859989 0.092999771
0.54834551 -1.7617891 0.092999317
0.54834551 -1.737656 0.092999212
0.54834551 -1.7135975 0.092999093
0.54834551 -1.689612 0.092999488
0.54834551 -1.6656985 0.092999592
0.54834551 -1.641856 0.092999503
0.54834551 -1.6180828 0.092999347
0.54834551 -1.594378 0.092999272
0.54834551 -1.5707402 0.092999414
0.54834551 -1.5471684 0.092999503
0.54834551 -1.5236614 0.092999719
0.54834551 -1.500218 0.092999339
0.54834551 -1.476837 0.092999496
0.54834551 -1.4535174 0.092999503
0.54834551 -1.430258 0.0929996
0.54834551 -1.4070565 0.092999242
0.54834551 -1.3839141 0.092999376
0.54834551 -1.3608286 0.092999488
0.54834551 -1.337799 0.092999414
0.54834551 -1.3148241 0.092999458
0.54834551 -1.2919028 0.092999481
0.54834551 -1.2690341 0.092999354
0.54834551 -1.246217 0.092999436
0.54834551 -1.2234504 0.092999615
0.54834551 -1.2007333 0.092999339
0.54834551 -1.1780646 0.092999458
0.54834551 -1.1554434 0.092999451
0.54834551 -1.1328685 0.092999719
0.54834551 -1.1103392 0.092999756
0.54834551 -1.0878544 0.09299954
0.54834551 -1.0654118 0.09299925
0.54834551 -1.0430127 0.092999406
0.54834551 -1.0206553 0.092999279
0.54834551 -0.9983384 0.092999354
0.54834551 -0.97606111 0.092999183
0.54834551 -0.95382243 0.092999279
0.54834551 -0.93162143 0.09299922
0.54834551 -0.90945715 0.09299954
0.54834551 -0.88732874 0.092999361
0.54834551 -0.86523515 0.092999712
0.54834551 -0.84317559 0.092999734
0.54834551 -0.82114911 0.09299954
0.54834551 -0.79915476 0.092999704
0.54834551 -0.77719164 0.092999414
0.54834551 -0.75525767 0.092999563
0.54834551 -0.73335433 0.09299925
0.54834551 -0.71147954 0.092999376
0.54834551 -0.68963242 0.092999175
0.54834551 -0.66781205 0.092999279
0.54834551 -0.64601755 0.092999414
0.54834551 -0.62424815 0.092999294
0.54834551 -0.60250282 0.092999592
0.54834551 -0.5807808 0.092999578
0.54834551 -0.55908126 0.092999481
0.54834551 -0.53740323 0.092999533
0.54834551 -0.51574594 0.092999488
0.54834551 -0.4941085 0.092999622
0.54834551 -0.47249004 0.092999704
0.54834551 -0.4508898 0.09299954
0.54834551 -0.42930567 0.092999302
